ply
		format ascii 1.0
		element vertex 2811
		property float x
		property float y
		property float z
		property uchar red
		property uchar green
		property uchar blue
		end_header
-1598.973877 -1157.804810 3967.194580 225 251 249
-1593.844482 -1157.804810 3967.194580 163 185 182
-1588.715088 -1157.804810 3967.194580 49 61 58
-1587.731201 -1160.835693 3977.580078 27 33 31
-1582.588257 -1160.835693 3977.580078 34 41 41
-1577.445435 -1160.835693 3977.580078 115 127 126
-1572.302612 -1160.835693 3977.580078 215 232 232
-1563.067993 -1157.804810 3967.194580 224 242 243
-1557.938599 -1157.804810 3967.194580 217 235 235
-1548.765381 -1154.789673 3956.863525 152 173 176
-1543.649292 -1154.789673 3956.863525 74 97 108
-1538.533203 -1154.789673 3956.863525 70 92 104
-1533.417236 -1154.789673 3956.863525 78 102 112
-1528.301147 -1154.789673 3956.863525 127 151 152
-1523.185059 -1154.789673 3956.863525 181 201 196
-1518.069092 -1154.789673 3956.863525 178 197 190
-1512.953003 -1154.789673 3956.863525 166 185 178
-1507.836914 -1154.789673 3956.863525 140 161 153
-1498.817749 -1151.790161 3946.585938 120 138 132
-1493.714966 -1151.790161 3946.585938 125 142 135
-1488.612183 -1151.790161 3946.585938 132 150 143
-1479.666138 -1148.806274 3936.361572 127 150 143
-1474.576538 -1148.806274 3936.361572 105 128 122
-1469.486938 -1148.806274 3936.361572 94 114 109
-1464.397461 -1148.806274 3936.361572 87 107 101
-1455.537109 -1145.837769 3926.190186 117 139 134
-1450.460693 -1145.837769 3926.190186 192 206 209
-1437.953003 -1139.946533 3906.003906 240 240 248
-1432.902710 -1139.946533 3906.003906 249 247 255
-1427.852417 -1139.946533 3906.003906 233 232 242
-1422.802124 -1139.946533 3906.003906 146 144 152
-1417.751831 -1139.946533 3906.003906 84 82 79
-1412.701538 -1139.946533 3906.003906 36 34 31
-1407.651245 -1139.946533 3906.003906 2 2 1
-1399.004517 -1137.023682 3895.988525 0 0 0
-1393.967163 -1137.023682 3895.988525 0 0 0
-1660.526855 -1152.675293 3967.194580 21 28 27
-1655.397461 -1152.675293 3967.194580 41 56 62
-1645.970459 -1149.673584 3956.863525 134 161 167
-1640.854370 -1149.673584 3956.863525 201 235 238
-1635.738281 -1149.673584 3956.863525 204 238 239
-1630.622314 -1149.673584 3956.863525 182 215 215
-1625.506226 -1149.673584 3956.863525 103 125 127
-1624.620972 -1152.675293 3967.194580 74 81 81
-1619.491577 -1152.675293 3967.194580 81 82 77
-1614.362183 -1152.675293 3967.194580 103 113 106
-1609.232666 -1152.675293 3967.194580 163 186 183
-1599.925903 -1149.673584 3956.863525 175 200 198
-1598.973877 -1152.675293 3967.194580 167 191 189
-1593.844482 -1152.675293 3967.194580 143 164 161
-1592.874023 -1155.692871 3977.580078 111 127 122
-1587.731201 -1155.692871 3977.580078 113 126 123
-1582.588257 -1155.692871 3977.580078 124 137 134
-1577.445435 -1155.692871 3977.580078 141 157 154
-1572.302612 -1155.692871 3977.580078 136 158 163
-1567.159790 -1155.692871 3977.580078 119 141 149
-1557.938599 -1152.675293 3967.194580 111 131 138
-1552.809204 -1152.675293 3967.194580 131 151 154
-1543.649292 -1149.673584 3956.863525 178 195 198
-1538.533203 -1149.673584 3956.863525 193 209 211
-1533.417236 -1149.673584 3956.863525 196 213 214
-1528.301147 -1149.673584 3956.863525 150 172 170
-1523.185059 -1149.673584 3956.863525 78 97 95
-1518.069092 -1149.673584 3956.863525 61 72 68
-1512.953003 -1149.673584 3956.863525 57 66 58
-1507.836914 -1149.673584 3956.863525 110 128 121
-1502.720825 -1149.673584 3956.863525 203 228 224
-1497.604858 -1149.673584 3956.863525 219 245 242
-1492.488770 -1149.673584 3956.863525 218 244 242
-1487.372681 -1149.673584 3956.863525 153 179 176
-1478.406616 -1146.687378 3946.585938 42 57 55
-1473.303833 -1146.687378 3946.585938 22 30 30
-1464.397461 -1143.716675 3936.361572 22 30 29
-1459.307861 -1143.716675 3936.361572 74 89 86
-1454.218384 -1143.716675 3936.361572 183 197 200
-1445.384277 -1140.761353 3926.190186 240 240 248
-1440.307861 -1140.761353 3926.190186 250 248 255
-1435.231445 -1140.761353 3926.190186 234 232 241
-1426.469116 -1137.821289 3916.071045 146 144 151
-1421.405762 -1137.821289 3916.071045 86 84 80
-1416.342529 -1137.821289 3916.071045 41 40 36
-1404.041870 -1131.986328 3895.988525 3 3 2
-1399.004517 -1131.986328 3895.988525 0 0 0
-1393.967163 -1131.986328 3895.988525 0 0 0
-1678.052246 -1159.657227 4009.064697 97 117 114
-1655.397461 -1147.545898 3967.194580 112 136 137
-1650.268066 -1147.545898 3967.194580 124 151 152
-1640.854370 -1144.557495 3956.863525 113 137 136
-1635.738281 -1144.557495 3956.863525 102 125 122
-1630.622314 -1144.557495 3956.863525 96 119 115
-1629.750366 -1147.545898 3967.194580 132 157 155
-1624.620972 -1147.545898 3967.194580 171 195 194
-1619.491577 -1147.545898 3967.194580 182 204 202
-1614.362183 -1147.545898 3967.194580 169 192 189
-1609.232666 -1147.545898 3967.194580 91 109 107
-1604.103271 -1147.545898 3967.194580 49 62 59
-1598.973877 -1147.545898 3967.194580 44 56 53
-1593.844482 -1147.545898 3967.194580 82 96 91
-1592.874023 -1150.549927 3977.580078 185 206 202
-1587.731201 -1150.549927 3977.580078 217 240 238
-1582.588257 -1150.549927 3977.580078 221 242 240
-1577.445435 -1150.549927 3977.580078 177 195 193
-1572.302612 -1150.549927 3977.580078 75 89 91
-1567.159790 -1150.549927 3977.580078 42 53 56
-1562.016968 -1150.549927 3977.580078 37 49 52
-1552.809204 -1147.545898 3967.194580 104 118 118
-1547.679688 -1147.545898 3967.194580 219 234 233
-1542.550293 -1147.545898 3967.194580 239 254 253
-1537.420898 -1147.545898 3967.194580 235 251 250
-1532.291504 -1147.545898 3967.194580 164 182 180
-1527.162109 -1147.545898 3967.194580 54 62 61
-1522.032715 -1147.545898 3967.194580 33 34 34
-1516.903198 -1147.545898 3967.194580 34 36 33
-1511.773804 -1147.545898 3967.194580 100 114 109
-1506.644409 -1147.545898 3967.194580 211 236 234
-1497.604858 -1144.557495 3956.863525 228 255 254
-1492.488770 -1144.557495 3956.863525 225 253 251
-1487.372681 -1144.557495 3956.863525 157 183 182
-1482.256592 -1144.557495 3956.863525 39 53 52
-1477.140625 -1144.557495 3956.863525 16 24 25
-1472.024536 -1144.557495 3956.863525 19 26 26
-1463.098267 -1141.584717 3946.585938 71 85 84
-1457.995483 -1141.584717 3946.585938 181 195 198
-1452.892822 -1141.584717 3946.585938 240 241 247
-1447.790039 -1141.584717 3946.585938 250 249 255
-1438.949707 -1138.627197 3936.361572 234 233 241
-1433.860107 -1138.627197 3936.361572 146 144 151
-1425.078735 -1135.684937 3926.190186 87 86 82
-1416.342529 -1132.757935 3916.071045 46 45 40
-1404.041870 -1126.948975 3895.988525 4 4 3
-1399.004517 -1126.948975 3895.988525 0 0 0
-1393.967163 -1126.948975 3895.988525 0 0 0
-1709.628418 -1176.197632 4084.504150 195 227 232
-1672.868652 -1154.473633 4009.064697 197 229 234
-1663.296509 -1151.435547 3998.514648 134 160 161
-1653.774536 -1148.413452 3988.019775 38 51 49
-1648.618164 -1148.413452 3988.019775 22 31 29
-1643.461792 -1148.413452 3988.019775 33 43 40
-1638.305542 -1148.413452 3988.019775 135 156 154
-1633.149170 -1148.413452 3988.019775 217 247 247
-1627.992798 -1148.413452 3988.019775 225 254 254
-1622.836426 -1148.413452 3988.019775 200 227 226
-1613.445312 -1145.407104 3977.580078 78 95 93
-1608.302490 -1145.407104 3977.580078 16 24 20
-1603.159668 -1145.407104 3977.580078 15 21 18
-1606.427490 -1151.435547 3998.514648 61 71 67
-1601.257568 -1151.435547 3998.514648 187 209 206
-1596.087646 -1151.435547 3998.514648 229 254 253
-1590.917725 -1151.435547 3998.514648 231 254 253
-1585.747803 -1151.435547 3998.514648 187 204 201
-1580.577881 -1151.435547 3998.514648 74 82 77
-1575.407959 -1151.435547 3998.514648 36 39 34
-1570.238037 -1151.435547 3998.514648 30 36 32
-1560.960327 -1148.413452 3988.019775 93 104 100
-1555.804077 -1148.413452 3988.019775 214 231 228
-1546.588379 -1145.407104 3977.580078 237 255 253
-1541.445557 -1145.407104 3977.580078 234 252 251
-1536.302734 -1145.407104 3977.580078 171 188 185
-1535.178711 -1148.413452 3988.019775 62 67 64
-1530.022339 -1148.413452 3988.019775 39 38 36
-1524.865967 -1148.413452 3988.019775 39 41 38
-1515.731323 -1145.407104 3977.580078 98 111 107
-1510.588501 -1145.407104 3977.580078 204 229 227
-1505.445679 -1145.407104 3977.580078 220 247 247
-1496.385620 -1142.416504 3967.194580 214 242 242
-1491.256226 -1142.416504 3967.194580 156 182 181
-1482.256592 -1139.441528 3956.863525 55 70 69
-1477.140625 -1139.441528 3956.863525 39 49 48
-1472.024536 -1139.441528 3956.863525 45 55 54
-1466.908447 -1139.441528 3956.863525 91 109 107
-1461.792358 -1139.441528 3956.863525 184 200 203
-1456.676392 -1139.441528 3956.863525 240 242 247
-1451.560303 -1139.441528 3956.863525 250 250 255
-1446.444214 -1139.441528 3956.863525 235 233 241
-1437.584473 -1136.481934 3946.585938 145 144 150
-1428.770630 -1133.537598 3936.361572 89 86 83
-1420.002319 -1130.608643 3926.190186 52 50 45
-1411.279175 -1127.694702 3916.071045 5 5 4
-1399.004517 -1121.911621 3895.988525 0 0 0
-1393.967163 -1121.911621 3895.988525 0 0 0
-1714.236572 -1174.072632 4095.513672 205 241 247
-1704.347412 -1170.916504 4084.504150 206 241 247
-1694.511108 -1167.777344 4073.553711 148 176 179
-1684.727539 -1164.655029 4062.661865 37 49 47
-1679.474609 -1164.655029 4062.661865 14 20 18
-1669.757202 -1161.549194 4051.828125 24 31 28
-1664.518433 -1161.549194 4051.828125 120 140 138
-1654.866577 -1158.459961 4041.052002 213 245 245
-1640.913330 -1152.330566 4019.670898 223 254 254
-1635.716064 -1152.330566 4019.670898 204 233 232
-1626.216675 -1149.290161 4009.064697 90 108 105
-1621.033203 -1149.290161 4009.064697 21 29 26
-1615.849609 -1149.290161 4009.064697 20 26 23
-1614.927002 -1152.330566 4019.670898 56 67 63
-1618.292236 -1158.459961 4041.052002 175 197 194
-1613.067261 -1158.459961 4041.052002 220 245 244
-1607.842407 -1158.459961 4041.052002 220 243 242
-1598.366455 -1155.387207 4030.333008 184 203 200
-1593.155396 -1155.387207 4030.333008 86 96 89
-1587.944336 -1155.387207 4030.333008 58 63 53
-1578.546265 -1152.330566 4019.670898 60 66 57
-1573.348999 -1152.330566 4019.670898 101 112 105
-1564.014038 -1149.290161 4009.064697 183 200 198
-1554.728394 -1146.265747 3998.514648 195 212 212
-1549.558472 -1146.265747 3998.514648 187 205 205
-1544.388550 -1146.265747 3998.514648 156 172 170
-1539.218628 -1146.265747 3998.514648 110 119 114
-1534.048706 -1146.265747 3998.514648 105 110 105
-1524.865967 -1143.257080 3988.019775 109 117 111
-1519.709595 -1143.257080 3988.019775 120 138 133
-1514.553345 -1143.257080 3988.019775 134 156 155
-1505.445679 -1140.264282 3977.580078 129 149 148
-1500.302856 -1140.264282 3977.580078 119 139 139
-1495.160034 -1140.264282 3977.580078 122 144 142
-1490.017090 -1140.264282 3977.580078 143 166 162
-1480.997314 -1137.287109 3967.194580 154 176 174
-1475.867920 -1137.287109 3967.194580 160 185 183
-1470.738525 -1137.287109 3967.194580 173 201 200
-1461.792358 -1134.325439 3956.863525 199 217 220
-1456.676392 -1134.325439 3956.863525 241 242 247
-1451.560303 -1134.325439 3956.863525 251 250 254
-1446.444214 -1134.325439 3956.863525 235 233 240
-1441.328125 -1134.325439 3956.863525 145 144 149
-1436.212158 -1134.325439 3956.863525 89 88 83
-1427.378906 -1131.379150 3946.585938 57 55 50
-1414.925903 -1125.532227 3926.190186 7 7 6
-1406.215820 -1122.631348 3916.071045 0 0 0
-1404.773071 -1125.532227 3926.190186 0 0 0
-1714.236572 -1168.777344 4095.513672 194 229 234
-1708.941284 -1168.777344 4095.513672 193 228 232
-1699.066284 -1165.635498 4084.504150 152 182 184
-1684.727539 -1159.402100 4062.661865 61 76 74
-1679.474609 -1159.402100 4062.661865 41 51 47
-1674.221802 -1159.402100 4062.661865 51 63 58
-1668.968994 -1159.402100 4062.661865 113 134 129
-1659.279541 -1156.310425 4051.828125 173 203 201
-1640.913330 -1147.133301 4019.670898 175 204 202
-1635.716064 -1147.133301 4019.670898 163 189 186
-1630.518799 -1147.133301 4019.670898 114 135 129
-1621.033203 -1144.106567 4009.064697 91 107 101
-1620.124268 -1147.133301 4019.670898 99 114 108
-1627.846436 -1156.310425 4051.828125 114 132 125
-1626.946167 -1159.402100 4062.661865 130 154 148
-1626.041016 -1162.510498 4073.553711 125 146 142
-1620.774048 -1162.510498 4073.553711 117 135 132
-1615.507202 -1162.510498 4073.553711 120 137 132
-1610.240234 -1162.510498 4073.553711 150 166 157
-1604.973267 -1162.510498 4073.553711 170 184 174
-1599.706299 -1162.510498 4073.553711 178 191 182
-1590.176270 -1159.402100 4062.661865 156 172 165
-1584.923340 -1159.402100 4062.661865 89 104 101
-1567.100220 -1150.176147 4030.333008 63 75 73
-1557.757202 -1147.133301 4019.670898 58 69 67
-1548.463379 -1144.106567 4009.064697 99 113 109
-1543.279907 -1144.106567 4009.064697 192 208 204
-1534.048706 -1141.095825 3998.514648 214 232 228
-1528.878784 -1141.095825 3998.514648 212 234 231
-1523.708862 -1141.095825 3998.514648 158 183 180
-1514.553345 -1138.100830 3988.019775 53 68 66
-1509.396973 -1138.100830 3988.019775 30 38 34
-1500.302856 -1135.121460 3977.580078 30 37 33
-1495.160034 -1135.121460 3977.580078 87 103 99
-1490.017090 -1135.121460 3977.580078 196 226 225
-1484.874268 -1135.121460 3977.580078 217 251 251
-1475.867920 -1132.157715 3967.194580 216 251 252
-1470.738525 -1132.157715 3967.194580 209 243 247
-1465.609131 -1132.157715 3967.194580 204 223 229
-1460.479736 -1132.157715 3967.194580 240 241 247
-1451.560303 -1129.209351 3956.863525 250 249 254
-1446.444214 -1129.209351 3956.863525 235 233 240
-1441.328125 -1129.209351 3956.863525 144 143 148
-1436.212158 -1129.209351 3956.863525 90 89 83
-1431.096069 -1129.209351 3956.863525 62 60 54
-1422.276123 -1126.276367 3946.585938 9 9 8
-1413.501953 -1123.358521 3936.361572 0 0 0
-1412.070679 -1126.276367 3946.585938 0 0 0
-1714.236572 -1163.482056 4095.513672 103 127 126
-1708.941284 -1163.482056 4095.513672 93 117 114
-1699.066284 -1160.354370 4084.504150 97 120 116
-1684.727539 -1154.149292 4062.661865 135 159 156
-1679.474609 -1154.149292 4062.661865 158 183 181
-1674.221802 -1154.149292 4062.661865 165 192 189
-1664.518433 -1151.071533 4051.828125 136 162 158
-1659.279541 -1151.071533 4051.828125 69 87 83
-1640.913330 -1141.936035 4019.670898 51 65 61
-1631.400269 -1138.922974 4009.064697 54 68 64
-1626.216675 -1138.922974 4009.064697 126 148 142
-1621.033203 -1138.922974 4009.064697 199 227 223
-1620.124268 -1141.936035 4019.670898 210 237 234
-1632.198975 -1154.149292 4062.661865 196 223 220
-1631.307983 -1157.243530 4073.553711 94 116 111
-1630.412109 -1160.354370 4084.504150 28 40 37
-1625.130981 -1160.354370 4084.504150 23 33 30
-1619.849854 -1160.354370 4084.504150 58 70 65
-1614.568848 -1160.354370 4084.504150 180 200 195
-1613.625488 -1163.482056 4095.513672 229 251 249
-1608.330078 -1163.482056 4095.513672 231 252 250
-1603.034790 -1163.482056 4095.513672 186 206 203
-1593.444458 -1160.354370 4084.504150 57 71 68
-1583.905518 -1157.243530 4073.553711 17 25 23
-1578.638672 -1157.243530 4073.553711 18 26 24
-1564.980347 -1151.071533 4051.828125 76 89 85
-1555.593262 -1148.010132 4041.052002 201 223 220
-1542.165405 -1141.936035 4019.670898 230 255 253
-1528.878784 -1135.925903 3998.514648 227 253 251
-1523.708862 -1135.925903 3998.514648 167 194 192
-1518.538940 -1135.925903 3998.514648 44 59 57
-1509.396973 -1132.944458 3988.019775 16 22 20
-1504.240601 -1132.944458 3988.019775 20 25 23
-1499.084229 -1132.944458 3988.019775 81 96 93
-1490.017090 -1129.978638 3977.580078 196 228 227
-1484.874268 -1129.978638 3977.580078 219 254 255
-1479.731445 -1129.978638 3977.580078 216 252 255
-1474.588623 -1129.978638 3977.580078 208 242 248
-1465.609131 -1127.028320 3967.194580 204 222 229
-1460.479736 -1127.028320 3967.194580 240 241 247
-1455.350220 -1127.028320 3967.194580 251 250 254
-1446.444214 -1124.093262 3956.863525 235 233 240
-1441.328125 -1124.093262 3956.863525 144 143 148
-1436.212158 -1124.093262 3956.863525 91 90 84
-1431.096069 -1124.093262 3956.863525 66 65 58
-1425.979980 -1124.093262 3956.863525 11 11 10
-1417.173340 -1121.173584 3946.585938 0 0 0
-1415.747925 -1124.093262 3956.863525 0 0 0
-1714.236572 -1158.186646 4095.513672 26 35 33
-1704.347412 -1155.073242 4084.504150 18 26 24
-1694.511108 -1151.976562 4073.553711 46 60 57
-1680.234863 -1145.832764 4051.828125 160 189 188
-1674.996094 -1145.832764 4051.828125 210 245 248
-1669.757202 -1145.832764 4051.828125 211 247 249
-1664.518433 -1145.832764 4051.828125 156 185 186
-1646.110596 -1136.738770 4019.670898 40 54 52
-1636.583740 -1133.739502 4009.064697 15 22 19
-1631.400269 -1133.739502 4009.064697 23 31 28
-1626.216675 -1133.739502 4009.064697 113 134 131
-1621.033203 -1133.739502 4009.064697 212 244 243
-1615.849609 -1133.739502 4009.064697 224 255 254
-1636.574829 -1151.976562 4073.553711 210 239 238
-1635.693237 -1155.073242 4084.504150 100 121 118
-1634.806763 -1158.186646 4095.513672 21 30 28
-1633.915527 -1161.316895 4106.582520 16 23 21
-1628.605835 -1161.316895 4106.582520 48 57 54
-1623.296265 -1161.316895 4106.582520 172 192 189
-1617.986572 -1161.316895 4106.582520 228 253 251
-1612.677002 -1161.316895 4106.582520 230 254 252
-1607.367310 -1161.316895 4106.582520 190 212 210
-1597.739502 -1158.186646 4095.513672 63 78 75
-1592.444092 -1158.186646 4095.513672 20 27 26
-1582.882324 -1155.073242 4084.504150 22 30 29
-1573.371704 -1151.976562 4073.553711 73 86 84
-1563.911987 -1148.896484 4062.661865 193 216 213
-1554.502686 -1145.832764 4051.828125 222 250 247
-1536.968140 -1136.738770 4019.670898 219 247 245
-1527.729248 -1133.739502 4009.064697 167 194 192
-1518.538940 -1130.755981 3998.514648 55 71 69
-1513.369019 -1130.755981 3998.514648 31 38 36
-1504.240601 -1127.788086 3988.019775 37 44 43
-1499.084229 -1127.788086 3988.019775 86 102 101
-1493.927979 -1127.788086 3988.019775 177 207 208
-1488.771606 -1127.788086 3988.019775 192 225 227
-1479.731445 -1124.835815 3977.580078 186 219 222
-1474.588623 -1124.835815 3977.580078 183 215 221
-1469.445801 -1124.835815 3977.580078 198 216 221
-1464.302979 -1124.835815 3977.580078 240 242 246
-1455.350220 -1121.898804 3967.194580 251 250 253
-1450.220825 -1121.898804 3967.194580 235 234 240
-1445.091431 -1121.898804 3967.194580 144 143 149
-1439.962036 -1121.898804 3967.194580 92 90 85
-1434.832642 -1121.898804 3967.194580 72 69 61
-1425.979980 -1118.977295 3956.863525 14 14 12
-1420.863892 -1118.977295 3956.863525 0 0 0
-1415.747925 -1118.977295 3956.863525 0 0 0
-1709.628418 -1149.792236 4084.504150 24 31 30
-1699.778076 -1146.709595 4073.553711 14 19 19
-1685.473755 -1140.593872 4051.828125 37 47 45
-1675.766235 -1137.560425 4041.052002 148 174 175
-1666.110107 -1134.542969 4030.333008 208 243 248
-1660.899048 -1134.542969 4030.333008 210 246 250
-1651.307861 -1131.541504 4019.670898 166 196 198
-1646.110596 -1131.541504 4019.670898 51 65 63
-1636.583740 -1128.555908 4009.064697 20 27 25
-1631.400269 -1128.555908 4009.064697 26 35 33
-1626.216675 -1128.555908 4009.064697 102 123 120
-1621.033203 -1128.555908 4009.064697 200 232 231
-1624.421753 -1134.542969 4030.333008 213 245 244
-1640.974243 -1149.792236 4084.504150 201 231 230
-1644.534790 -1156.007324 4106.582520 112 135 133
-1643.667480 -1159.140137 4117.711426 42 55 52
-1638.343506 -1159.140137 4117.711426 41 52 48
-1633.019409 -1159.140137 4117.711426 64 78 73
-1627.695435 -1159.140137 4117.711426 153 174 169
-1622.371338 -1159.140137 4117.711426 193 217 214
-1612.677002 -1156.007324 4106.582520 189 213 210
-1607.367310 -1156.007324 4106.582520 164 187 183
-1602.057617 -1156.007324 4106.582520 97 116 112
-1596.748047 -1156.007324 4106.582520 79 95 91
-1591.438354 -1156.007324 4106.582520 87 103 101
-1581.853516 -1152.891357 4095.513672 109 127 124
-1576.558105 -1152.891357 4095.513672 141 163 159
-1562.837769 -1146.709595 4073.553711 141 163 159
-1553.406250 -1143.643555 4062.661865 132 154 150
-1535.833862 -1134.542969 4030.333008 125 148 145
-1526.573608 -1131.541504 4019.670898 128 150 147
-1517.362183 -1128.555908 4009.064697 136 156 153
-1508.199097 -1125.586060 3998.514648 144 165 162
-1499.084229 -1122.631714 3988.019775 134 158 157
-1493.927979 -1122.631714 3988.019775 93 114 116
-1488.771606 -1122.631714 3988.019775 76 95 95
-1483.615234 -1122.631714 3988.019775 70 90 90
-1478.458862 -1122.631714 3988.019775 98 120 119
-1469.445801 -1119.692871 3977.580078 181 196 198
-1464.302979 -1119.692871 3977.580078 240 241 245
-1459.160034 -1119.692871 3977.580078 251 249 253
-1454.017212 -1119.692871 3977.580078 235 233 239
-1448.874390 -1119.692871 3977.580078 144 142 147
-1443.731567 -1119.692871 3977.580078 92 90 85
-1434.832642 -1116.769409 3967.194580 76 73 65
-1429.703247 -1116.769409 3967.194580 18 17 15
-1420.863892 -1113.861206 3956.863525 0 0 0
-1415.747925 -1113.861206 3956.863525 0 0 0
-1709.628418 -1144.511108 4084.504150 56 67 66
-1695.233154 -1138.390747 4062.661865 49 60 58
-1685.473755 -1135.354980 4051.828125 65 79 77
-1666.899658 -1126.344238 4019.670898 128 153 153
-1661.702393 -1126.344238 4019.670898 161 191 195
-1656.505127 -1126.344238 4019.670898 157 187 190
-1651.307861 -1126.344238 4019.670898 137 164 166
-1646.110596 -1126.344238 4019.670898 97 119 118
-1640.913330 -1126.344238 4019.670898 94 114 113
-1635.716064 -1126.344238 4019.670898 104 124 124
-1630.518799 -1126.344238 4019.670898 119 145 142
-1629.632812 -1129.331909 4030.333008 121 148 145
-1650.692749 -1147.596069 4095.513672 114 137 134
-1654.315552 -1153.816040 4117.711426 108 130 126
-1648.991455 -1153.816040 4117.711426 120 144 140
-1648.133911 -1156.951416 4128.900879 148 173 169
-1642.795410 -1156.951416 4128.900879 159 184 179
-1637.457031 -1156.951416 4128.900879 160 185 179
-1632.118530 -1156.951416 4128.900879 112 135 129
-1626.780029 -1156.951416 4128.900879 71 87 84
-1617.047363 -1153.816040 4117.711426 63 77 74
-1611.723267 -1153.816040 4117.711426 76 93 90
-1606.399292 -1153.816040 4117.711426 158 182 179
-1601.075317 -1153.816040 4117.711426 199 225 222
-1595.751221 -1153.816040 4117.711426 203 230 228
-1590.427246 -1153.816040 4117.711426 175 201 199
-1585.103149 -1153.816040 4117.711426 73 91 88
-1575.509521 -1150.697632 4106.582520 33 43 41
-1565.967529 -1147.596069 4095.513672 29 39 37
-1552.303955 -1141.442749 4073.553711 72 89 86
-1547.036987 -1141.442749 4073.553711 184 214 212
-1529.468750 -1132.335449 4041.052002 213 248 248
-1516.179077 -1126.344238 4019.670898 213 248 249
-1506.994995 -1123.372437 4009.064697 165 196 198
-1497.859375 -1120.416138 3998.514648 49 65 68
-1492.689453 -1120.416138 3998.514648 18 26 27
-1483.615234 -1117.475464 3988.019775 18 27 27
-1478.458862 -1117.475464 3988.019775 62 76 75
-1473.302612 -1117.475464 3988.019775 172 186 189
-1468.146240 -1117.475464 3988.019775 238 239 244
-1462.989868 -1117.475464 3988.019775 243 242 246
-1457.833618 -1117.475464 3988.019775 233 231 237
-1448.874390 -1114.550049 3977.580078 144 142 146
-1443.731567 -1114.550049 3977.580078 93 91 83
-1438.588745 -1114.550049 3977.580078 80 78 68
-1429.703247 -1111.640015 3967.194580 22 21 19
-1420.863892 -1108.745117 3956.863525 0 0 0
-1415.747925 -1108.745117 3956.863525 0 0 0
-1709.628418 -1139.229980 4084.504150 154 180 181
-1695.233154 -1133.137939 4062.661865 161 187 189
-1685.473755 -1130.116211 4051.828125 164 192 194
-1666.899658 -1121.146973 4019.670898 113 137 138
-1657.317993 -1118.188843 4009.064697 52 67 66
-1656.505127 -1121.146973 4019.670898 41 54 53
-1651.307861 -1121.146973 4019.670898 59 76 74
-1646.110596 -1121.146973 4019.670898 152 181 180
-1640.913330 -1121.146973 4019.670898 198 232 235
-1644.416748 -1127.110596 4041.052002 202 237 239
-1647.957520 -1133.137939 4062.661865 156 186 186
-1655.988037 -1142.300659 4095.513672 49 66 63
-1664.149414 -1151.612915 4128.900879 22 33 30
-1658.810913 -1151.612915 4128.900879 27 38 36
-1653.472412 -1151.612915 4128.900879 109 129 127
-1652.624756 -1154.750854 4140.151367 207 239 238
-1647.271729 -1154.750854 4140.151367 220 253 252
-1641.918701 -1154.750854 4140.151367 207 239 238
-1632.118530 -1151.612915 4128.900879 103 126 123
-1626.780029 -1151.612915 4128.900879 22 34 32
-1621.441528 -1151.612915 4128.900879 17 25 24
-1616.103027 -1151.612915 4128.900879 44 55 54
-1610.764526 -1151.612915 4128.900879 165 189 187
-1605.426025 -1151.612915 4128.900879 223 253 252
-1595.751221 -1148.492065 4117.711426 224 255 254
-1594.749023 -1151.612915 4128.900879 188 218 217
-1585.103149 -1148.492065 4117.711426 65 82 82
-1579.779175 -1148.492065 4117.711426 17 24 24
-1570.199829 -1145.388062 4106.582520 16 23 23
-1560.672119 -1142.300659 4095.513672 62 77 76
-1555.376831 -1142.300659 4095.513672 183 214 214
-1541.770142 -1136.175781 4073.553711 217 253 254
-1532.394897 -1133.137939 4062.661865 215 252 254
-1519.018921 -1127.110596 4041.052002 167 199 203
-1513.794067 -1127.110596 4041.052002 49 64 67
-1496.627930 -1118.188843 4009.064697 17 23 24
-1487.519531 -1115.246216 3998.514648 18 24 24
-1482.349609 -1115.246216 3998.514648 61 73 72
-1473.302612 -1112.319092 3988.019775 172 184 186
-1468.146240 -1112.319092 3988.019775 239 239 243
-1462.989868 -1112.319092 3988.019775 245 244 248
-1457.833618 -1112.319092 3988.019775 233 231 237
-1452.677246 -1112.319092 3988.019775 144 142 146
-1443.731567 -1109.407227 3977.580078 93 91 84
-1438.588745 -1109.407227 3977.580078 84 81 73
-1429.703247 -1106.510620 3967.194580 26 24 22
-1420.863892 -1103.629028 3956.863525 1 1 1
-1415.747925 -1103.629028 3956.863525 0 0 0
-1709.628418 -1133.948975 4084.504150 191 223 228
-1699.778076 -1130.908813 4073.553711 200 234 240
-1685.473755 -1124.877319 4051.828125 198 231 238
-1662.501587 -1113.005249 4009.064697 122 147 149
-1657.317993 -1113.005249 4009.064697 26 37 34
-1656.505127 -1115.949707 4019.670898 15 24 19
-1651.307861 -1115.949707 4019.670898 38 51 46
-1650.476929 -1118.909790 4030.333008 149 177 176
-1654.040649 -1124.877319 4051.828125 211 247 251
-1666.578735 -1137.005371 4095.513672 214 250 254
-1670.287598 -1143.167969 4117.711426 169 201 202
-1674.036987 -1149.397827 4140.151367 51 67 64
-1673.243164 -1152.538208 4151.463379 16 25 23
-1667.875488 -1152.538208 4151.463379 21 31 29
-1662.507812 -1152.538208 4151.463379 98 117 115
-1657.140137 -1152.538208 4151.463379 204 237 237
-1651.772461 -1152.538208 4151.463379 219 254 254
-1646.404785 -1152.538208 4151.463379 209 243 242
-1636.565674 -1149.397827 4140.151367 111 137 134
-1631.212646 -1149.397827 4140.151367 26 38 37
-1621.441528 -1146.274414 4128.900879 20 30 28
-1616.103027 -1146.274414 4128.900879 44 55 54
-1610.764526 -1146.274414 4128.900879 155 180 178
-1605.426025 -1146.274414 4128.900879 214 246 246
-1600.087524 -1146.274414 4128.900879 214 247 247
-1594.749023 -1146.274414 4128.900879 184 216 215
-1589.410522 -1146.274414 4128.900879 74 95 95
-1584.072021 -1146.274414 4128.900879 31 41 40
-1574.455078 -1143.167969 4117.711426 32 42 40
-1569.131104 -1143.167969 4117.711426 70 86 84
-1559.580566 -1140.078369 4106.582520 167 197 197
-1550.081543 -1137.005371 4095.513672 192 227 227
-1544.786255 -1137.005371 4095.513672 187 221 222
-1531.236206 -1130.908813 4073.553711 153 183 185
-1525.969238 -1130.908813 4073.553711 76 94 93
-1512.591919 -1124.877319 4051.828125 59 70 68
-1499.356567 -1118.909790 4030.333008 64 76 74
-1486.260864 -1113.005249 4009.064697 97 114 112
-1481.077271 -1113.005249 4009.064697 178 192 196
-1475.893677 -1113.005249 4009.064697 240 240 245
-1466.839844 -1110.076294 3998.514648 252 250 254
-1457.833618 -1107.162720 3988.019775 235 233 238
-1452.677246 -1107.162720 3988.019775 143 141 144
-1447.520874 -1107.162720 3988.019775 93 91 84
-1438.588745 -1104.264404 3977.580078 86 84 75
-1433.445923 -1104.264404 3977.580078 30 29 26
-1424.573730 -1101.381226 3967.194580 1 1 1
-1419.444336 -1101.381226 3967.194580 0 0 0
-1714.236572 -1131.710083 4095.513672 188 219 224
-1699.778076 -1125.641968 4073.553711 196 230 237
-1676.532227 -1113.698730 4030.333008 195 229 236
-1662.501587 -1107.821777 4009.064697 135 161 164
-1657.317993 -1107.821777 4009.064697 38 51 48
-1656.505127 -1110.752441 4019.670898 24 35 30
-1655.687988 -1113.698730 4030.333008 42 55 50
-1663.716064 -1122.632202 4062.661865 134 161 159
-1671.874023 -1131.710083 4095.513672 195 230 233
-1684.743042 -1144.044800 4140.151367 196 231 234
-1688.592163 -1150.313477 4162.836914 164 196 197
-1692.483643 -1156.651367 4185.772949 73 92 89
-1687.071655 -1156.651367 4185.772949 45 59 55
-1677.039673 -1153.473755 4174.273438 51 67 62
-1667.062622 -1150.313477 4162.836914 101 122 117
-1661.680298 -1150.313477 4162.836914 167 198 195
-1651.772461 -1147.170532 4151.463379 173 205 203
-1646.404785 -1147.170532 4151.463379 166 196 193
-1641.037109 -1147.170532 4151.463379 121 147 143
-1631.212646 -1144.044800 4140.151367 87 105 102
-1625.859619 -1144.044800 4140.151367 91 107 105
-1620.506592 -1144.044800 4140.151367 101 121 119
-1610.764526 -1140.935913 4128.900879 126 152 150
-1605.426025 -1140.935913 4128.900879 130 157 156
-1600.087524 -1140.935913 4128.900879 123 149 147
-1594.749023 -1140.935913 4128.900879 117 143 141
-1589.410522 -1140.935913 4128.900879 124 149 146
-1584.072021 -1140.935913 4128.900879 134 158 156
-1578.733521 -1140.935913 4128.900879 140 164 162
-1569.131104 -1137.843994 4117.711426 136 161 161
-1563.807129 -1137.843994 4117.711426 99 124 125
-1558.483032 -1137.843994 4117.711426 77 99 98
-1548.961304 -1134.768799 4106.582520 72 91 90
-1543.651611 -1134.768799 4106.582520 92 113 112
-1534.195557 -1131.710083 4095.513672 153 180 180
-1528.900269 -1131.710083 4095.513672 174 201 203
-1519.509155 -1128.667847 4084.504150 176 204 208
-1506.130615 -1122.632202 4062.661865 178 207 212
-1500.877808 -1122.632202 4062.661865 194 211 217
-1483.723389 -1113.698730 4030.333008 240 240 246
-1474.600952 -1110.752441 4019.670898 252 250 254
-1465.526611 -1107.821777 4009.064697 234 232 238
-1456.500000 -1104.906372 3998.514648 141 140 143
-1451.330200 -1104.906372 3998.514648 93 92 84
-1442.364502 -1102.006348 3988.019775 89 87 78
-1433.445923 -1099.121582 3977.580078 34 34 30
-1428.302979 -1099.121582 3977.580078 1 1 1
-1423.160156 -1099.121582 3977.580078 0 0 0
-1718.869751 -1129.459106 4106.582520 149 174 176
-1699.778076 -1120.375000 4073.553711 132 158 161
-1676.532227 -1108.487671 4030.333008 126 152 156
-1666.899658 -1105.555176 4019.670898 113 136 140
-1661.702393 -1105.555176 4019.670898 105 127 128
-1660.899048 -1108.487671 4030.333008 113 135 135
-1677.941895 -1123.386719 4084.504150 120 145 145
-2145.620117 -1441.034058 5239.433105 116 143 142
-2138.845703 -1441.034058 5239.433105 95 121 120
-1920.188477 -1297.825684 4718.744141 87 111 109
-1902.271973 -1289.814453 4689.615723 90 113 110
-1823.061035 -1240.058960 4508.710938 133 159 157
-1720.244385 -1173.875977 4268.077637 159 189 188
-1686.305054 -1154.419556 4197.335938 166 196 195
-1671.642456 -1148.076538 4174.273438 143 170 170
-1666.245361 -1148.076538 4174.273438 73 93 92
-1656.297852 -1144.931152 4162.836914 52 70 68
-1650.915527 -1144.931152 4162.836914 56 71 69
-1641.037109 -1141.802979 4151.463379 115 137 132
-1635.669434 -1141.802979 4151.463379 190 220 217
-1630.301880 -1141.802979 4151.463379 202 232 231
-1620.506592 -1138.691772 4140.151367 192 224 222
-1615.153564 -1138.691772 4140.151367 102 126 125
-1609.800415 -1138.691772 4140.151367 32 45 43
-1600.087524 -1135.597412 4128.900879 25 36 34
-1594.749023 -1135.597412 4128.900879 46 61 58
-1589.410522 -1135.597412 4128.900879 155 182 181
-1584.072021 -1135.597412 4128.900879 210 244 247
-1578.733521 -1135.597412 4128.900879 212 247 250
-1573.395020 -1135.597412 4128.900879 180 212 216
-1568.056519 -1135.597412 4128.900879 65 85 89
-1558.483032 -1132.520020 4117.711426 20 30 31
-1553.159058 -1132.520020 4117.711426 20 28 29
-1547.834961 -1132.520020 4117.711426 64 77 78
-1538.342041 -1129.459106 4106.582520 176 206 211
-1533.032349 -1129.459106 4106.582520 208 242 249
-1527.722778 -1129.459106 4106.582520 204 239 247
-1514.228149 -1123.386719 4084.504150 197 229 238
-1508.947021 -1123.386719 4084.504150 197 215 221
-1499.634644 -1120.375000 4073.553711 240 240 244
-1482.444580 -1111.435791 4041.052002 252 250 253
-1469.403687 -1105.555176 4019.670898 233 231 237
-1464.206421 -1105.555176 4019.670898 140 139 141
-1455.159546 -1102.638184 4009.064697 93 92 85
-1446.160278 -1099.736450 3998.514648 92 90 80
-1437.208252 -1096.850098 3988.019775 39 38 34
-1432.051880 -1096.850098 3988.019775 2 2 2
-1426.895508 -1096.850098 3988.019775 0 0 0
-1718.869751 -1124.149414 4106.582520 90 107 106
-1704.347412 -1118.105713 4084.504150 34 45 44
-1685.473755 -1109.160767 4051.828125 29 38 37
-1671.321167 -1103.276611 4030.333008 65 80 80
-1666.110107 -1103.276611 4030.333008 166 195 198
-2174.163086 -1444.219849 5275.817871 198 231 236
-2167.341553 -1444.219849 5275.817871 194 229 233
-2160.520264 -1444.219849 5275.817871 119 146 148
-2153.698730 -1444.219849 5275.817871 28 41 40
-2103.063477 -1414.745972 5168.147949 17 27 24
-1920.050293 -1295.748657 4733.444336 40 53 50
-1907.986206 -1291.724487 4718.744141 150 178 179
-1878.549072 -1275.875122 4660.845215 209 245 249
-1709.922729 -1165.084839 4256.122070 211 247 252
-1676.247559 -1145.827271 4185.772949 167 197 201
-1666.245361 -1142.679443 4174.273438 49 64 65
-1660.848145 -1142.679443 4174.273438 17 26 26
-1655.451050 -1142.679443 4174.273438 24 32 33
-1645.533203 -1139.548828 4162.836914 103 120 119
-1640.150757 -1139.548828 4162.836914 205 238 238
-1630.301880 -1136.435303 4151.463379 218 254 255
-1620.506592 -1133.338745 4140.151367 207 241 243
-1615.153564 -1133.338745 4140.151367 107 131 133
-1609.800415 -1133.338745 4140.151367 23 32 34
-1604.447388 -1133.338745 4140.151367 16 23 24
-1599.094360 -1133.338745 4140.151367 39 48 48
-1589.410522 -1130.259033 4128.900879 151 176 178
-1584.072021 -1130.259033 4128.900879 212 247 252
-1578.733521 -1130.259033 4128.900879 214 249 254
-1573.395020 -1130.259033 4128.900879 183 215 221
-1568.056519 -1130.259033 4128.900879 67 85 89
-1562.718018 -1130.259033 4128.900879 19 27 27
-1557.379517 -1130.259033 4128.900879 20 26 28
-1552.041016 -1130.259033 4128.900879 61 74 74
-1542.510986 -1127.195923 4117.711426 172 201 205
-1537.186890 -1127.195923 4117.711426 204 238 245
-1527.722778 -1124.149414 4106.582520 200 234 242
-1522.413086 -1124.149414 4106.582520 193 225 233
-1517.103516 -1124.149414 4106.582520 196 213 219
-1503.665894 -1118.105713 4084.504150 239 240 244
-1494.367676 -1115.108032 4073.553711 252 250 253
-1485.119263 -1112.126465 4062.661865 233 231 236
-1471.994751 -1106.210938 4041.052002 139 137 140
-1462.879150 -1103.276611 4030.333008 93 91 84
-1453.811890 -1100.357910 4019.670898 94 91 81
-1444.792358 -1097.454590 4009.064697 44 43 38
-1432.051880 -1091.693726 3988.019775 3 3 3
-1430.650513 -1094.566528 3998.514648 0 0 0
-1728.211426 -1124.920532 4128.900879 92 105 105
-1713.560059 -1118.839844 4106.582520 21 29 28
-1699.066284 -1112.824585 4084.504150 15 21 21
-1689.244263 -1109.841064 4073.553711 49 62 61
-2211.702637 -1457.643433 5350.125000 160 190 192
-2197.049072 -1452.528931 5331.353027 202 238 244
-2182.497803 -1447.450073 5312.711914 200 236 241
-2160.520264 -1437.398438 5275.817871 132 160 163
-2153.698730 -1437.398438 5275.817871 32 44 45
-2117.468018 -1417.708008 5203.546387 17 25 25
-1981.788208 -1331.095581 4885.645020 35 46 47
-1944.213745 -1310.033936 4808.340332 139 165 168
-1919.771118 -1297.713867 4763.121094 205 240 246
-1811.401855 -1228.399780 4508.710938 207 243 250
-1680.878052 -1143.565552 4197.335938 170 202 208
-1670.835571 -1140.415283 4185.772949 59 76 78
-1665.423462 -1140.415283 4185.772949 24 34 34
-1655.451050 -1137.282227 4174.273438 30 39 39
-1650.053833 -1137.282227 4174.273438 95 112 112
-1644.656738 -1137.282227 4174.273438 190 222 225
-1634.768433 -1134.166382 4162.836914 203 238 243
-1624.934204 -1131.067627 4151.463379 193 227 232
-1619.566528 -1131.067627 4151.463379 114 138 141
-1609.800415 -1127.985718 4140.151367 43 56 56
-1604.447388 -1127.985718 4140.151367 41 51 49
-1599.094360 -1127.985718 4140.151367 58 71 70
-1593.741333 -1127.985718 4140.151367 137 160 164
-1588.388306 -1127.985718 4140.151367 177 209 213
-1583.035278 -1127.985718 4140.151367 175 206 210
-1577.682251 -1127.985718 4140.151367 155 184 188
-1572.329224 -1127.985718 4140.151367 92 112 113
-1562.718018 -1124.920532 4128.900879 70 83 82
-1557.379517 -1124.920532 4128.900879 74 89 87
-1552.041016 -1124.920532 4128.900879 93 112 112
-1546.702515 -1124.920532 4128.900879 131 158 161
-1541.364136 -1124.920532 4128.900879 138 164 167
-1536.025635 -1124.920532 4128.900879 131 156 161
-1526.538940 -1121.871948 4117.711426 137 164 168
-1517.103516 -1118.839844 4106.582520 182 199 203
-1511.793823 -1118.839844 4106.582520 239 239 243
-1502.423584 -1115.824097 4095.513672 252 250 253
-1493.103760 -1112.824585 4084.504150 233 230 236
-1483.833862 -1109.841064 4073.553711 138 137 139
-1474.613525 -1106.873657 4062.661865 93 91 85
-1465.442383 -1103.921997 4051.828125 95 93 82
-1452.457031 -1098.065674 4030.333008 49 48 42
-1439.608887 -1092.271118 4009.064697 4 4 3
-1434.425293 -1092.271118 4009.064697 0 0 0
-1737.655151 -1125.699951 4151.463379 115 131 135
-1722.872925 -1119.582031 4128.900879 46 62 68
-2225.537598 -1450.725952 5350.125000 40 57 63
-2234.354980 -1461.014771 5388.069336 62 84 88
-2227.388428 -1461.014771 5388.069336 139 171 176
-2220.421875 -1461.014771 5388.069336 169 205 212
-2197.867676 -1450.725952 5350.125000 165 201 210
-2183.262451 -1445.635742 5331.353027 128 161 169
-2153.698730 -1430.577026 5275.817871 74 99 107
-2117.468018 -1410.979980 5203.546387 70 91 102
-2014.170410 -1346.425415 4965.475586 80 104 114
-1975.471313 -1324.778687 4885.645020 122 153 160
-1937.996826 -1303.817017 4808.340332 142 176 186
-1901.689819 -1283.508301 4733.444336 136 171 182
-1723.733276 -1167.156250 4304.350098 124 158 166
-1675.451050 -1138.138550 4197.335938 105 134 136
-1670.024170 -1138.138550 4197.335938 108 133 133
-1664.597168 -1138.138550 4197.335938 117 139 142
-1654.599487 -1135.003174 4185.772949 123 148 152
-1649.187378 -1135.003174 4185.772949 110 140 152
-1639.259521 -1131.885132 4174.273438 99 129 146
-1629.385986 -1128.784058 4162.836914 95 124 139
-1624.003662 -1128.784058 4162.836914 114 142 150
-1614.198853 -1125.699951 4151.463379 146 172 175
-1608.831177 -1125.699951 4151.463379 154 181 182
-1603.463501 -1125.699951 4151.463379 153 180 183
-1598.095825 -1125.699951 4151.463379 107 132 139
-1592.728149 -1125.699951 4151.463379 64 86 93
-1587.360474 -1125.699951 4151.463379 56 77 83
-1581.992798 -1125.699951 4151.463379 70 92 96
-1576.625122 -1125.699951 4151.463379 144 171 172
-1571.257446 -1125.699951 4151.463379 182 211 215
-1565.889893 -1125.699951 4151.463379 186 215 220
-1556.270020 -1122.632568 4140.151367 160 190 195
-1550.916992 -1122.632568 4140.151367 69 88 93
-1541.364136 -1119.582031 4128.900879 33 45 45
-1536.025635 -1119.582031 4128.900879 31 42 43
-1530.687134 -1119.582031 4128.900879 64 79 78
-1525.348633 -1119.582031 4128.900879 165 179 180
-1515.890869 -1116.547852 4117.711426 238 238 242
-1506.484253 -1113.530151 4106.582520 251 249 254
-1501.174561 -1113.530151 4106.582520 232 230 236
-1491.832886 -1110.528809 4095.513672 138 136 138
-1486.537598 -1110.528809 4095.513672 93 91 84
-1473.299927 -1104.574219 4073.553711 96 94 82
-1464.107788 -1101.620728 4062.661865 54 53 46
-1447.246094 -1092.854614 4030.333008 5 5 5
-1442.035034 -1092.854614 4030.333008 0 0 0
-2279.504639 -1469.683228 5446.005371 161 181 186
-2248.288086 -1454.048218 5388.069336 141 170 179
-2257.330811 -1464.434326 5426.555664 145 177 183
-2266.503906 -1474.969849 5465.595703 146 178 186
-2251.338867 -1469.683228 5446.005371 101 130 136
-2244.297363 -1469.683228 5446.005371 59 84 90
-2213.455322 -1454.048218 5388.069336 53 77 86
-2206.488770 -1454.048218 5388.069336 80 106 114
-2161.202881 -1428.716431 5294.200684 156 188 196
-2139.448730 -1418.829102 5257.562500 179 214 223
-2034.112671 -1353.272583 5014.638672 177 212 220
-1988.257446 -1326.995483 4917.267090 113 143 151
-1937.996826 -1297.599976 4808.340332 39 62 70
-1901.689819 -1277.388184 4733.444336 29 49 59
-1743.489624 -1174.904297 4353.683594 49 71 79
-1718.167969 -1161.590942 4304.350098 147 179 184
-1702.954224 -1155.046753 4280.100098 197 234 239
-1687.910889 -1148.575928 4256.122070 200 236 242
-1663.766235 -1135.849365 4208.962891 155 188 195
-1653.743164 -1132.711670 4197.335938 46 70 83
-1643.775391 -1129.591187 4185.772949 18 37 53
-1633.862427 -1126.487915 4174.273438 23 43 59
-1628.465210 -1126.487915 4174.273438 103 129 139
-1618.621338 -1123.401611 4162.836914 197 232 239
-1608.831177 -1120.332275 4151.463379 208 244 252
-1603.463501 -1120.332275 4151.463379 196 232 240
-1598.095825 -1120.332275 4151.463379 99 128 143
-1592.728149 -1120.332275 4151.463379 20 42 62
-1587.360474 -1120.332275 4151.463379 14 35 55
-1581.992798 -1120.332275 4151.463379 39 62 79
-1576.625122 -1120.332275 4151.463379 152 183 192
-1571.257446 -1120.332275 4151.463379 207 242 251
-1565.889893 -1120.332275 4151.463379 208 243 252
-1560.522217 -1120.332275 4151.463379 175 208 217
-1555.154541 -1120.332275 4151.463379 62 84 96
-1545.563965 -1117.279541 4140.151367 18 30 42
-1536.025635 -1114.243530 4128.900879 17 29 38
-1530.687134 -1114.243530 4128.900879 54 68 73
-1525.348633 -1114.243530 4128.900879 161 175 178
-1520.010132 -1114.243530 4128.900879 237 238 243
-1514.671631 -1114.243530 4128.900879 251 248 254
-1505.242798 -1111.223877 4117.711426 232 229 235
-1495.864868 -1108.220581 4106.582520 139 137 137
-1490.555298 -1108.220581 4106.582520 98 94 84
-1481.242310 -1105.233398 4095.513672 97 95 82
-1471.979370 -1102.262329 4084.504150 59 58 51
-1458.854980 -1096.367920 4062.661865 7 7 6
-1453.602173 -1096.367920 4062.661865 0 0 0
-2304.281738 -1478.540039 5505.201172 182 200 201
-2272.463135 -1462.641724 5446.005371 187 218 223
-2273.570801 -1467.903076 5465.595703 195 228 232
-2266.503906 -1467.903076 5465.595703 188 220 225
-2267.593994 -1473.202271 5485.327148 99 121 124
-2260.501709 -1473.202271 5485.327148 21 30 31
-2245.303467 -1467.903076 5465.595703 16 23 24
-2238.236816 -1467.903076 5465.595703 56 70 70
-2199.522217 -1447.081665 5388.069336 168 198 202
-2154.357910 -1421.871216 5294.200684 203 239 244
-2082.216553 -1378.638672 5133.228027 199 234 239
-1994.712891 -1324.925415 4933.232422 123 148 151
-1937.996826 -1291.383057 4808.340332 27 37 36
-1907.632568 -1275.240723 4748.236328 15 21 20
-1768.831055 -1186.270508 4416.963867 35 45 45
-1737.860474 -1169.275146 4353.683594 143 169 172
-1717.468018 -1159.309814 4316.578125 204 240 245
-1707.037354 -1156.025635 4304.350098 206 242 248
-1687.133667 -1146.283813 4268.077637 163 194 198
-1672.220825 -1139.880005 4244.233398 48 64 64
-1662.090454 -1136.704834 4232.411133 15 23 23
-1642.889282 -1127.284668 4197.335938 20 29 29
-1628.465210 -1121.090820 4174.273438 95 114 116
-1623.067993 -1121.090820 4174.273438 193 226 233
-1613.238892 -1118.019287 4162.836914 206 241 248
-1603.463501 -1114.964600 4151.463379 195 229 236
-1598.095825 -1114.964600 4151.463379 103 129 137
-1597.091797 -1118.019287 4162.836914 24 39 47
-1591.709473 -1118.019287 4162.836914 19 32 40
-1581.992798 -1114.964600 4151.463379 41 58 66
-1576.625122 -1114.964600 4151.463379 145 172 179
-1571.257446 -1114.964600 4151.463379 197 230 238
-1565.889893 -1114.964600 4151.463379 196 230 238
-1560.522217 -1114.964600 4151.463379 169 201 210
-1555.154541 -1114.964600 4151.463379 72 96 111
-1549.786865 -1114.964600 4151.463379 34 53 69
-1540.210938 -1111.926514 4140.151367 36 55 72
-1534.857910 -1111.926514 4140.151367 68 89 102
-1525.348633 -1108.905029 4128.900879 164 180 185
-1520.010132 -1108.905029 4128.900879 237 238 243
-1514.671631 -1108.905029 4128.900879 251 249 254
-1509.333130 -1108.905029 4128.900879 232 229 235
-1503.994629 -1108.905029 4128.900879 147 142 141
-1494.594727 -1105.899780 4117.711426 126 112 95
-1485.245605 -1102.910889 4106.582520 108 100 86
-1475.947021 -1099.938110 4095.513672 63 63 56
-1466.698242 -1096.981323 4084.504150 9 9 8
-1461.417236 -1096.981323 4084.504150 0 0 0
-2312.661133 -1476.772583 5525.220215 186 201 201
-2297.163818 -1471.421997 5505.201172 185 215 218
-2290.045898 -1471.421997 5505.201172 192 225 228
-2291.229492 -1476.772583 5525.220215 188 220 224
-2292.421631 -1482.162354 5545.385254 114 137 138
-2285.251709 -1482.162354 5545.385254 35 45 42
-2278.081787 -1482.162354 5545.385254 29 36 33
-2262.653809 -1476.772583 5525.220215 59 71 68
-2231.169922 -1460.836182 5465.595703 155 182 183
-2169.476074 -1424.956055 5331.353027 191 223 228
-2117.993652 -1395.575562 5221.428223 187 219 224
-2075.579590 -1372.001587 5133.228027 130 157 159
-1988.334351 -1318.546997 4933.232422 52 66 63
-1925.685913 -1281.111938 4793.171875 44 54 50
-1843.872314 -1230.643921 4604.350098 58 71 68
-1747.876953 -1170.352905 4378.776855 130 154 155
-1732.231323 -1163.646118 4353.683594 172 204 207
-1711.886841 -1153.728638 4316.578125 170 202 205
-1706.305664 -1153.728638 4316.578125 145 174 174
-1691.115967 -1147.210327 4292.190918 80 99 95
-1676.096802 -1140.765381 4268.077637 65 78 74
-1665.898926 -1137.569946 4256.122070 71 86 80
-1651.145752 -1131.232544 4232.411133 105 125 123
-1641.102173 -1128.090210 4220.654297 144 171 175
-1622.127319 -1118.767090 4185.772949 145 172 176
-1612.273682 -1115.693604 4174.273438 137 164 165
-1602.474121 -1112.636963 4162.836914 112 135 134
-1597.091797 -1112.636963 4162.836914 96 114 113
-1591.709473 -1112.636963 4162.836914 100 117 116
-1586.327026 -1112.636963 4162.836914 106 126 125
-1580.944702 -1112.636963 4162.836914 114 136 137
-1579.890747 -1115.693604 4174.273438 110 130 133
-1574.493652 -1115.693604 4174.273438 103 123 126
-1564.797607 -1112.636963 4162.836914 103 125 127
-1559.415161 -1112.636963 4162.836914 121 146 149
-1549.786865 -1109.596924 4151.463379 131 156 161
-1544.419189 -1109.596924 4151.463379 135 160 169
-1539.051514 -1109.596924 4151.463379 144 170 180
-1529.504883 -1106.573486 4140.151367 181 197 203
-1524.151855 -1106.573486 4140.151367 237 237 241
-1514.671631 -1103.566528 4128.900879 250 248 253
-1509.333130 -1103.566528 4128.900879 231 228 234
-1503.994629 -1103.566528 4128.900879 153 147 143
-1498.656128 -1103.566528 4128.900879 164 137 113
-1493.317627 -1103.566528 4128.900879 141 120 98
-1479.936035 -1097.601318 4106.582520 74 70 62
-1474.626343 -1097.601318 4106.582520 12 12 11
-1469.316772 -1097.601318 4106.582520 0 0 0
-2321.101318 -1474.992310 5545.385254 185 196 196
-2305.517090 -1469.628784 5525.220215 141 166 167
-2306.761475 -1474.992310 5545.385254 125 151 151
-2308.014893 -1480.395264 5565.698242 121 146 144
-2309.277588 -1485.837891 5586.160156 110 133 130
-2302.054932 -1485.837891 5586.160156 111 132 129
-2294.832275 -1485.837891 5586.160156 118 138 137
-2279.230225 -1480.395264 5565.698242 124 146 143
-2255.510010 -1469.628784 5525.220215 115 137 134
-2177.115234 -1423.056030 5350.125000 99 118 116
-2140.055908 -1403.291382 5275.817871 93 113 110
-2089.699219 -1374.652710 5168.147949 102 124 122
-2014.496704 -1329.433960 4998.143066 138 163 162
-1944.084229 -1287.095215 4838.966797 152 177 177
-1883.832397 -1251.231934 4704.134766 152 177 178
-1763.119995 -1174.848511 4416.963867 110 134 134
-1742.215332 -1164.691406 4378.776855 66 84 81
-1721.669067 -1154.708252 4341.244629 60 75 71
-1706.305664 -1148.147461 4316.578125 76 93 87
-1700.724487 -1148.147461 4316.578125 145 170 167
-1685.566284 -1141.660767 4292.190918 176 204 206
-1675.284180 -1138.444824 4280.100098 178 207 210
-1665.059937 -1135.246948 4268.077637 139 164 167
-1659.541504 -1135.246948 4268.077637 60 74 75
-1644.782715 -1128.904785 4244.233398 41 51 50
-1630.187866 -1122.633057 4220.654297 44 55 52
-1611.303223 -1113.355103 4185.772949 113 132 130
-1605.891235 -1113.355103 4185.772949 186 215 218
-1596.082275 -1110.296509 4174.273438 195 225 228
-1590.685059 -1110.296509 4174.273438 182 211 215
-1589.655151 -1113.355103 4185.772949 91 110 112
-1584.243042 -1113.355103 4185.772949 28 35 33
-1578.831055 -1113.355103 4185.772949 22 27 25
